ply
format ascii 1.0
element vertex 276
property float x
property float y
property float z
property uchar diffuse_red
property uchar diffuse_green
property uchar diffuse_blue
end_header
-0.012521 -0.098310 0.941735 39 43 46
0.017787 0.051977 0.918966 206 189 173
0.095481 -0.069232 0.924213 103 81 84
0.012126 0.098981 0.925351 104 115 117
-0.063254 -0.083538 0.934788 67 65 76
0.026120 -0.127351 0.904625 18 27 22
0.067830 -0.084246 0.926479 90 72 72
-0.123200 -0.204373 0.848969 150 152 164
-0.261236 -0.234282 0.700637 181 184 189
-0.085097 0.241962 0.965380 150 138 116
-0.121204 -0.162726 0.869508 71 91 124
-0.043927 0.278320 0.957903 144 128 112
-0.113280 -0.217653 0.848580 80 87 113
-0.089479 -0.190660 0.827081 154 168 179
-0.057586 -0.110427 0.932329 61 58 65
0.477307 -0.020913 0.863930 216 205 183
0.094125 0.038507 0.925852 111 89 92
0.103100 -0.087303 0.921609 89 60 56
-0.053938 -0.056296 0.924958 73 68 108
-0.277070 -0.088843 0.911960 165 225 255
0.008040 -0.026398 0.935635 136 153 145
-0.002835 -0.173828 0.887008 234 244 243
0.096557 0.078559 0.923380 126 107 103
0.109063 -0.057153 0.922466 91 71 73
-0.010355 -0.204601 0.855715 153 156 171
-0.119673 -0.211072 0.851811 32 45 89
-0.011852 -0.032211 0.914131 117 127 119
0.121980 0.085651 0.919334 115 100 97
-0.010017 -0.087223 0.926101 81 79 66
0.107209 -0.092940 0.920604 89 59 48
0.114743 -0.010090 0.923667 71 56 53
0.006575 -0.184143 0.864712 190 194 177
0.095908 -0.061847 0.924747 94 83 81
-0.081945 0.105666 0.934152 115 112 95
0.015561 0.011339 0.936627 64 59 65
-0.059541 -0.025783 0.915299 130 151 156
-0.004889 0.035319 0.913980 197 186 158
0.113850 -0.045646 0.922835 95 77 75
-0.103178 -0.215813 0.848657 38 34 67
-0.104441 -0.212761 0.849829 53 62 79
0.239829 0.317999 0.915112 153 135 125
0.029952 -0.241612 0.834692 92 102 104
-0.029034 -0.018558 0.914009 85 75 73
-0.066152 0.014807 0.914712 73 84 80
0.061566 -0.072469 0.931280 26 18 15
0.086957 0.287855 0.951757 146 134 122
0.106605 0.077010 0.922289 61 51 62
-0.210299 -0.053399 0.892085 181 186 205
0.050156 -0.113359 0.906105 105 83 69
0.011612 0.094537 0.925668 28 37 36
-0.083942 -0.188007 0.871086 39 37 38
-0.074108 0.010894 0.915726 127 141 118
-0.119624 -0.227980 0.846743 108 137 155
-0.044888 0.044138 0.914438 198 204 190
-0.063874 0.102432 0.933244 103 88 81
-0.113034 -0.222140 0.847163 90 108 118
-0.011032 -0.020362 0.913382 133 144 140
0.415390 0.236937 0.876426 161 147 138
-0.110914 0.255486 0.958985 147 139 120
-0.013894 0.100084 0.931948 114 87 94
-0.002760 0.017574 0.913238 112 110 97
0.091953 0.045018 0.925938 124 95 97
-0.053318 -0.016532 0.914083 155 168 159
0.148770 0.266918 0.950045 144 135 128
-0.072488 0.194446 0.976814 152 132 123
-0.049709 -0.202676 0.860968 45 45 43
-0.052456 -0.027032 0.914987 129 146 154
-0.039489 -0.022763 0.913713 158 169 165
0.095669 0.283915 0.951925 145 130 123
-0.106313 -0.227437 0.845847 131 166 188
0.098221 0.064234 0.924087 83 64 57
0.112238 0.010308 0.923961 105 84 83
-0.005194 0.004189 0.912911 138 122 97
0.081202 0.060046 0.926735 76 58 56
-0.071403 0.274196 0.957677 151 134 116
0.112377 0.070606 0.921634 75 59 62
0.094377 0.087204 0.923072 88 67 64
0.102377 0.048618 0.924433 66 62 63
0.109477 -0.073486 0.921594 96 74 77
0.300534 0.276186 0.910768 145 136 119
-0.005076 0.013820 0.913140 71 60 54
0.003567 -0.022572 0.934348 142 149 142
-0.028964 0.036540 0.913759 172 151 130
0.327017 -0.000746 0.851932 215 209 187
0.031604 0.089162 0.925938 123 125 137
0.097671 0.016592 0.925839 124 99 103
-0.057109 -0.003136 0.913567 159 176 168
0.082017 -0.086249 0.924638 66 52 51
-0.066043 -0.229795 0.847347 140 172 187
0.251857 0.211351 0.941917 154 140 127
-0.004640 -0.099105 0.926063 156 151 132
-0.173652 -0.216106 0.849217 111 133 147
0.013554 -0.237189 0.835217 127 151 161
-0.004391 -0.006243 0.913208 129 106 92
-0.363399 -0.174879 0.659940 204 213 244
-0.101284 0.265679 0.957502 148 136 120
-0.132130 -0.220667 0.846694 112 143 164
-0.037575 0.101089 0.932867 123 103 104
-0.058319 0.002235 0.913795 138 147 126
0.109477 -0.073486 0.921594 96 74 77
-0.144706 -0.231532 0.847383 90 73 115
-0.061063 0.023181 0.914546 151 140 118
0.108446 0.010199 0.924564 133 117 127
0.157080 -0.067686 0.869585 167 223 255
-0.334437 -0.188891 0.685488 200 216 241
-0.029150 0.031150 0.913180 180 167 150
-0.027071 -0.110524 0.931385 47 38 43
0.109991 0.096261 0.919852 89 73 73
-0.355171 -0.178966 0.667386 205 214 243
0.124729 0.031855 0.921762 65 43 46
-0.002210 -0.256498 0.872429 72 68 95
0.099894 -0.048665 0.924763 73 57 57
-0.093536 -0.224645 0.846911 128 150 174
-0.181234 -0.219303 0.848310 63 80 106
0.428062 0.243551 0.868507 168 160 139
-0.132428 -0.218076 0.848788 128 155 182
0.071212 0.241787 0.965912 147 140 124
0.173748 0.307467 0.933454 132 122 112
0.108656 0.084444 0.921208 76 61 54
-0.064094 0.108471 0.932076 119 117 92
-0.052723 0.112685 0.931812 79 70 63
-0.150242 -0.232750 0.609208 180 188 191
0.125308 0.042042 0.921333 43 42 38
-0.003089 -0.219782 0.840390 48 50 88
-0.107999 -0.182357 0.868501 47 52 58
0.095585 0.100965 0.922011 96 75 72
0.118304 0.075181 0.920629 67 63 62
0.101189 -0.051978 0.924333 99 85 82
-0.009987 0.020685 0.913230 87 84 75
0.030159 -0.217650 0.840356 200 206 204
-0.023573 -0.006585 0.912740 109 88 69
-0.184514 -0.227555 0.844956 75 68 102
-0.308070 -0.200720 0.542867 91 90 106
0.144075 -0.062328 0.920674 217 210 194
0.102569 0.076624 0.922652 79 53 62
0.122465 0.094646 0.918287 123 93 101
-0.132130 -0.220667 0.846694 112 143 164
0.111278 -0.064994 0.922036 117 109 107
-0.022273 -0.215484 0.842857 37 51 90
-0.079654 0.281106 0.954879 138 130 109
0.107333 0.019361 0.924654 85 66 59
0.110362 -0.078060 0.921213 124 104 105
-0.044057 0.116056 0.931243 190 186 161
-0.087780 -0.290091 0.784753 152 221 254
0.076438 -0.097023 0.924491 72 55 48
-0.133527 -0.211398 0.850004 99 115 140
-0.050539 0.078128 0.925178 227 230 213
-0.131920 -0.221062 0.848309 113 145 160
0.118515 -0.037916 0.922325 108 96 96
0.089024 0.077409 0.924484 55 45 54
-0.031574 0.103282 0.932358 127 109 109
-0.045822 0.316599 0.945857 141 128 120
0.005271 -0.214726 0.841872 182 190 169
-0.068710 0.114204 0.931647 85 87 84
0.092615 -0.252658 0.946549 124 201 255
-0.019773 0.014895 0.912700 172 183 166
-0.079373 -0.308387 0.818826 159 207 255
0.102377 0.048618 0.924433 66 62 63
0.102627 -0.081919 0.922147 123 97 96
-0.032738 -0.010046 0.913011 95 97 84
-0.015833 0.018700 0.912765 187 194 186
-0.005076 0.013820 0.913140 71 60 54
0.115480 0.058404 0.922027 108 94 93
-0.028968 -0.241798 0.835190 91 84 117
-0.093536 -0.224645 0.846911 128 150 174
0.064670 0.161154 0.946825 156 147 132
0.153630 0.285235 0.943887 139 138 118
0.057519 0.131815 0.926933 166 159 143
-0.360242 -0.176248 0.662864 205 214 245
0.118410 0.052684 0.921984 80 62 62
0.118410 0.052684 0.921984 80 62 62
0.108446 0.010199 0.924564 133 117 127
0.242440 0.207785 0.945346 154 148 134
0.005010 0.096837 0.927146 41 42 46
0.052269 0.095995 0.926989 141 109 110
0.023848 0.074926 0.925815 226 238 218
0.215771 0.157790 0.961075 168 158 148
-0.178332 -0.058091 0.961814 174 227 255
-0.200595 -0.155616 0.939952 158 221 255
0.008949 -0.236771 0.838035 126 145 149
-0.093967 -0.236018 0.843677 104 89 130
0.134495 -0.105404 0.917582 100 91 118
-0.001247 -0.093987 0.926550 22 22 22
-0.140925 -0.044054 0.760917 201 219 255
0.155398 -0.043789 0.913355 220 209 189
-0.001036 0.021320 0.913329 161 140 123
-0.351759 -0.180543 0.670451 201 215 242
0.101189 -0.051978 0.924333 99 85 82
0.125631 0.098782 0.917348 68 53 48
0.125308 0.042042 0.921333 43 42 38
-0.005169 -0.085473 0.926231 65 63 66
0.092276 -0.075406 0.923868 115 86 91
-0.055073 0.115794 0.931588 205 200 170
-0.042307 0.205050 0.976299 151 138 122
-0.066296 0.172725 0.981135 154 142 120
-0.023319 -0.213520 0.843739 162 167 186
0.095481 -0.069232 0.924213 103 81 84
0.003392 -0.247464 0.835156 93 100 93
0.120467 -0.010007 0.922788 121 106 109
-0.001918 0.012468 0.913144 184 181 176
0.116311 -0.003647 0.923555 83 64 66
-0.165835 -0.227707 0.657998 157 224 253
-0.139375 -0.250172 0.695851 161 209 255
0.141564 0.105657 0.916576 76 65 73
0.102609 0.106918 0.920119 93 74 68
-0.148415 -0.230684 0.845466 82 68 103
0.075032 0.096268 0.924699 121 111 109
0.182763 0.275717 0.941500 154 139 134
-0.001637 -0.242575 0.838128 58 48 73
0.053283 -0.305415 0.915886 151 219 254
0.042401 0.112404 0.926688 197 179 169
0.094217 -0.080444 0.923496 113 94 88
-0.078500 -0.218270 0.846989 127 150 158
0.122083 0.068500 0.920355 111 96 99
0.141564 0.105657 0.916576 76 65 73
0.102159 -0.071660 0.922972 84 64 63
0.035489 0.112795 0.927306 193 177 164
-0.086275 -0.234602 0.844500 53 47 61
0.084730 0.087300 0.924152 145 133 135
0.161037 0.193193 0.965617 151 145 129
-0.051415 0.008692 0.913297 53 56 61
-0.170114 -0.229543 0.845534 85 76 103
0.224405 0.178632 0.955780 167 153 144
-0.024732 0.085220 0.930138 211 191 167
0.128935 0.163817 0.975745 163 156 138
-0.069363 -0.211298 0.846973 74 57 111
0.425989 0.190775 0.882447 160 153 137
0.087670 -0.079236 0.924395 77 55 57
0.018232 -0.238415 0.836723 129 152 166
0.122277 0.076047 0.919835 121 99 101
-0.076038 -0.223010 0.846141 135 162 179
0.197678 0.290077 0.934225 132 125 115
0.119788 -0.000447 0.922902 118 107 105
-0.068558 -0.215849 0.845847 42 49 91
0.125644 0.092696 0.917941 64 45 47
-0.146383 -0.247695 0.692188 165 207 255
0.194074 0.278645 0.938458 155 146 137
0.221992 -0.184508 0.876111 162 223 254
-0.180033 -0.228426 0.845252 97 87 121
-0.051415 0.008692 0.913297 53 56 61
0.309904 -0.191812 0.878374 159 222 253
0.032294 0.110263 0.927627 99 89 88
0.117970 -0.063806 0.921217 129 110 112
-0.049517 -0.215557 0.852115 53 50 93
-0.082950 -0.210264 0.847575 63 62 93
0.009715 0.091303 0.925978 84 93 92
-0.036080 -0.007569 0.912919 160 175 168
0.121299 0.009446 0.922734 119 97 100
0.428188 0.122759 0.832878 175 165 153
0.002719 -0.232023 0.839788 131 154 168
0.086568 0.098474 0.923287 118 108 107
-0.140904 -0.210931 0.850044 110 131 148
-0.125734 -0.227544 0.846820 123 149 172
-0.170114 -0.229543 0.845534 85 76 103
-0.139990 -0.224682 0.848221 145 171 184
0.012649 -0.248409 0.833978 99 114 121
-0.026138 -0.215453 0.843287 45 50 92
-0.065837 -0.229076 0.844715 140 172 187
-0.071379 -0.228499 0.845105 141 177 193
0.408455 0.173329 0.894132 170 160 148
0.148808 0.028725 0.921512 219 208 190
0.409576 0.105135 0.887059 181 174 156
-0.144395 -0.230932 0.845621 90 73 115
0.118208 -0.048182 0.922042 129 114 117
-0.035725 0.006421 0.912766 146 152 126
-0.039580 -0.242532 0.839983 93 88 128
-0.044426 -0.222858 0.844399 122 152 154
-0.022298 0.111239 0.931233 120 103 111
-0.006723 -0.283117 0.884863 152 221 252
0.117815 -0.058666 0.921575 127 113 113
-0.021725 -0.224138 0.842689 100 106 118
-0.041062 0.008187 0.912842 159 167 154
-0.167159 0.100061 0.972460 185 167 143
0.085522 0.106754 0.922455 100 80 79
-0.097731 -0.262447 0.852226 157 223 255
-0.146014 0.092477 0.983803 186 178 159
